VERSION 0.7
FIELDS X Y Z Intensity ReturnNumber NumberOfReturns ScanDirectionFlag EdgeOfFlightLine Classification ScanAngleRank UserData PointSourceId GpsTime Red Green Blue
SIZE 8 8 8 8 8 8 8 8 8 8 8 8 8 8 8 8
TYPE F F F F F F F F F F F F F F F F
COUNT 1 1 1 1 1 1 1 1 1 1 1 1 1 1 1 1
WIDTH 380
HEIGHT 1
VIEWPOINT 0.0 0.0 0.0 1.0 0.0 0.0 0.0
POINTS 380
DATA ascii
553824.69 4118286.75 594.43 0.00 0.00 0.00 0.00 0.00 1.00 0.00 0.00 0.00 0.00 46336.00 41472.00 35840.00 
553824.69 4118287.00 594.43 0.00 0.00 0.00 0.00 0.00 1.00 0.00 0.00 0.00 0.00 44288.00 39680.00 33024.00 
553824.69 4118292.25 594.60 0.00 0.00 0.00 0.00 0.00 1.00 0.00 0.00 0.00 0.00 44288.00 39936.00 33280.00 
553824.75 4118291.50 594.56 0.00 0.00 0.00 0.00 0.00 1.00 0.00 0.00 0.00 0.00 39168.00 34304.00 26368.00 
553824.75 4118290.00 594.52 0.00 0.00 0.00 0.00 0.00 1.00 0.00 0.00 0.00 0.00 43776.00 37888.00 29696.00 
553824.75 4118288.00 594.46 0.00 0.00 0.00 0.00 0.00 1.00 0.00 0.00 0.00 0.00 34304.00 28416.00 19456.00 
553824.81 4118289.00 594.47 0.00 0.00 0.00 0.00 0.00 1.00 0.00 0.00 0.00 0.00 40704.00 34816.00 25344.00 
553825.00 4118293.00 594.64 0.00 0.00 0.00 0.00 0.00 1.00 0.00 0.00 0.00 0.00 45312.00 40960.00 31744.00 
553825.00 4118289.25 594.51 0.00 0.00 0.00 0.00 0.00 1.00 0.00 0.00 0.00 0.00 38912.00 32512.00 24064.00 
553825.00 4118293.00 594.64 0.00 0.00 0.00 0.00 0.00 1.00 0.00 0.00 0.00 0.00 46080.00 41728.00 32512.00 
553825.00 4118287.00 594.44 0.00 0.00 0.00 0.00 0.00 1.00 0.00 0.00 0.00 0.00 41472.00 36608.00 30208.00 
553825.00 4118286.25 594.43 0.00 0.00 0.00 0.00 0.00 1.00 0.00 0.00 0.00 0.00 36864.00 30720.00 23296.00 
553825.00 4118293.00 594.63 0.00 0.00 0.00 0.00 0.00 1.00 0.00 0.00 0.00 0.00 43008.00 37888.00 28672.00 
553825.00 4118288.00 594.46 0.00 0.00 0.00 0.00 0.00 1.00 0.00 0.00 0.00 0.00 39168.00 32768.00 23296.00 
553825.06 4118290.00 594.56 0.00 0.00 0.00 0.00 0.00 1.00 0.00 0.00 0.00 0.00 40704.00 34560.00 23808.00 
553825.06 4118291.25 594.58 0.00 0.00 0.00 0.00 0.00 1.00 0.00 0.00 0.00 0.00 41728.00 36608.00 28160.00 
553825.13 4118285.75 594.43 0.00 0.00 0.00 0.00 0.00 1.00 0.00 0.00 0.00 0.00 46336.00 41472.00 32512.00 
553826.00 4118287.00 594.49 0.00 0.00 0.00 0.00 0.00 1.00 0.00 0.00 0.00 0.00 40960.00 35584.00 27136.00 
553826.00 4118290.00 594.63 0.00 0.00 0.00 0.00 0.00 1.00 0.00 0.00 0.00 0.00 36864.00 30208.00 20224.00 
553826.00 4118286.25 594.45 0.00 0.00 0.00 0.00 0.00 1.00 0.00 0.00 0.00 0.00 44032.00 38912.00 26880.00 
553826.00 4118285.25 594.43 0.00 0.00 0.00 0.00 0.00 1.00 0.00 0.00 0.00 0.00 49152.00 44544.00 36608.00 
553826.00 4118288.00 594.54 0.00 0.00 0.00 0.00 0.00 1.00 0.00 0.00 0.00 0.00 41728.00 36352.00 25600.00 
553826.00 4118289.25 594.60 0.00 0.00 0.00 0.00 0.00 1.00 0.00 0.00 0.00 0.00 46592.00 40448.00 29952.00 
553826.06 4118293.00 594.68 0.00 0.00 0.00 0.00 0.00 1.00 0.00 0.00 0.00 0.00 40704.00 35840.00 26112.00 
553826.06 4118285.00 594.43 0.00 0.00 0.00 0.00 0.00 1.00 0.00 0.00 0.00 0.00 51200.00 46336.00 35840.00 
553826.19 4118293.00 594.67 0.00 0.00 0.00 0.00 0.00 1.00 0.00 0.00 0.00 0.00 47872.00 43264.00 35328.00 
553826.38 4118281.25 604.81 0.00 0.00 0.00 0.00 0.00 1.00 0.00 0.00 0.00 0.00 34816.00 28928.00 21760.00 
553826.44 4118291.25 594.64 0.00 0.00 0.00 0.00 0.00 1.00 0.00 0.00 0.00 0.00 37632.00 32512.00 24064.00 
553826.50 4118284.00 594.43 0.00 0.00 0.00 0.00 0.00 1.00 0.00 0.00 0.00 0.00 47872.00 44288.00 36608.00 
553826.56 4118280.75 604.57 0.00 0.00 0.00 0.00 0.00 1.00 0.00 0.00 0.00 0.00 41728.00 37376.00 32512.00 
553826.81 4118282.25 598.91 0.00 0.00 0.00 0.00 0.00 1.00 0.00 0.00 0.00 0.00 46592.00 42240.00 36096.00 
553826.94 4118280.00 604.77 0.00 0.00 0.00 0.00 0.00 1.00 0.00 0.00 0.00 0.00 38144.00 32768.00 26112.00 
553827.00 4118283.25 594.43 0.00 0.00 0.00 0.00 0.00 1.00 0.00 0.00 0.00 0.00 48128.00 44032.00 36608.00 
553827.00 4118284.50 594.43 0.00 0.00 0.00 0.00 0.00 1.00 0.00 0.00 0.00 0.00 47872.00 42752.00 32512.00 
553827.00 4118286.00 594.51 0.00 0.00 0.00 0.00 0.00 1.00 0.00 0.00 0.00 0.00 45824.00 40960.00 29952.00 
553827.00 4118291.25 594.71 0.00 0.00 0.00 0.00 0.00 1.00 0.00 0.00 0.00 0.00 40704.00 34560.00 23296.00 
553827.06 4118292.50 594.73 0.00 0.00 0.00 0.00 0.00 1.00 0.00 0.00 0.00 0.00 48640.00 44544.00 36608.00 
553827.06 4118288.00 594.59 0.00 0.00 0.00 0.00 0.00 1.00 0.00 0.00 0.00 0.00 45056.00 41216.00 32000.00 
553827.13 4118282.75 594.43 0.00 0.00 0.00 0.00 0.00 1.00 0.00 0.00 0.00 0.00 44032.00 39424.00 29440.00 
553827.13 4118287.00 594.55 0.00 0.00 0.00 0.00 0.00 1.00 0.00 0.00 0.00 0.00 44288.00 39168.00 28160.00 
553827.13 4118290.25 594.69 0.00 0.00 0.00 0.00 0.00 1.00 0.00 0.00 0.00 0.00 37632.00 32000.00 21248.00 
553827.19 4118285.25 594.46 0.00 0.00 0.00 0.00 0.00 1.00 0.00 0.00 0.00 0.00 51200.00 48896.00 42752.00 
553827.25 4118293.75 594.75 0.00 0.00 0.00 0.00 0.00 1.00 0.00 0.00 0.00 0.00 33536.00 28928.00 21248.00 
553827.50 4118289.25 594.67 0.00 0.00 0.00 0.00 0.00 1.00 0.00 0.00 0.00 0.00 45824.00 42240.00 33024.00 
553827.63 4118280.75 599.27 0.00 0.00 0.00 0.00 0.00 1.00 0.00 0.00 0.00 0.00 37888.00 33024.00 25600.00 
553827.88 4118281.75 594.43 0.00 0.00 0.00 0.00 0.00 1.00 0.00 0.00 0.00 0.00 53760.00 49920.00 42496.00 
553827.94 4118279.00 604.03 0.00 0.00 0.00 0.00 0.00 1.00 0.00 0.00 0.00 0.00 43776.00 35840.00 26880.00 
553828.00 4118279.75 603.55 0.00 0.00 0.00 0.00 0.00 1.00 0.00 0.00 0.00 0.00 17920.00 14848.00 11008.00 
553828.00 4118279.00 604.12 0.00 0.00 0.00 0.00 0.00 1.00 0.00 0.00 0.00 0.00 54016.00 46592.00 36352.00 
553828.00 4118285.25 594.49 0.00 0.00 0.00 0.00 0.00 1.00 0.00 0.00 0.00 0.00 40448.00 34048.00 23808.00 
553828.00 4118282.00 594.43 0.00 0.00 0.00 0.00 0.00 1.00 0.00 0.00 0.00 0.00 47360.00 42752.00 33536.00 
553828.06 4118291.00 594.76 0.00 0.00 0.00 0.00 0.00 1.00 0.00 0.00 0.00 0.00 50176.00 46080.00 36608.00 
553828.06 4118286.00 594.58 0.00 0.00 0.00 0.00 0.00 1.00 0.00 0.00 0.00 0.00 47616.00 43264.00 33280.00 
553828.06 4118284.25 594.48 0.00 0.00 0.00 0.00 0.00 1.00 0.00 0.00 0.00 0.00 44800.00 38400.00 27392.00 
553828.06 4118292.25 594.77 0.00 0.00 0.00 0.00 0.00 1.00 0.00 0.00 0.00 0.00 44544.00 39424.00 28160.00 
553828.06 4118282.00 594.43 0.00 0.00 0.00 0.00 0.00 1.00 0.00 0.00 0.00 0.00 47360.00 42496.00 34048.00 
553828.06 4118287.75 594.63 0.00 0.00 0.00 0.00 0.00 1.00 0.00 0.00 0.00 0.00 38656.00 35584.00 27904.00 
553828.06 4118289.25 594.72 0.00 0.00 0.00 0.00 0.00 1.00 0.00 0.00 0.00 0.00 45568.00 41472.00 30976.00 
553828.13 4118293.75 594.81 0.00 0.00 0.00 0.00 0.00 1.00 0.00 0.00 0.00 0.00 36352.00 31232.00 23552.00 
553828.19 4118290.00 594.73 0.00 0.00 0.00 0.00 0.00 1.00 0.00 0.00 0.00 0.00 48128.00 44288.00 35072.00 
553828.25 4118289.00 594.67 0.00 0.00 0.00 0.00 0.00 1.00 0.00 0.00 0.00 0.00 41984.00 37632.00 28416.00 
553828.38 4118280.00 597.71 0.00 0.00 0.00 0.00 0.00 1.00 0.00 0.00 0.00 0.00 51456.00 44288.00 33024.00 
553828.56 4118283.25 594.45 0.00 0.00 0.00 0.00 0.00 1.00 0.00 0.00 0.00 0.00 39168.00 38144.00 33536.00 
553828.81 4118281.00 594.43 0.00 0.00 0.00 0.00 0.00 1.00 0.00 0.00 0.00 0.00 41216.00 36352.00 28672.00 
553828.88 4118278.00 606.05 0.00 0.00 0.00 0.00 0.00 1.00 0.00 0.00 0.00 0.00 31744.00 26624.00 19968.00 
553829.00 4118276.00 608.07 0.00 0.00 0.00 0.00 0.00 1.00 0.00 0.00 0.00 0.00 37376.00 35840.00 31488.00 
553829.00 4118293.25 594.86 0.00 0.00 0.00 0.00 0.00 1.00 0.00 0.00 0.00 0.00 32000.00 27136.00 21248.00 
553829.00 4118280.50 594.43 0.00 0.00 0.00 0.00 0.00 1.00 0.00 0.00 0.00 0.00 45312.00 40448.00 31232.00 
553829.00 4118283.00 594.49 0.00 0.00 0.00 0.00 0.00 1.00 0.00 0.00 0.00 0.00 42240.00 36608.00 27648.00 
553829.06 4118292.50 594.84 0.00 0.00 0.00 0.00 0.00 1.00 0.00 0.00 0.00 0.00 29696.00 26368.00 21504.00 
553829.06 4118281.00 594.44 0.00 0.00 0.00 0.00 0.00 1.00 0.00 0.00 0.00 0.00 45312.00 40704.00 31488.00 
553829.06 4118287.00 594.68 0.00 0.00 0.00 0.00 0.00 1.00 0.00 0.00 0.00 0.00 48128.00 44800.00 37888.00 
553829.06 4118288.25 594.73 0.00 0.00 0.00 0.00 0.00 1.00 0.00 0.00 0.00 0.00 48384.00 43008.00 30976.00 
553829.06 4118282.00 594.45 0.00 0.00 0.00 0.00 0.00 1.00 0.00 0.00 0.00 0.00 44544.00 39936.00 31232.00 
553829.13 4118286.00 594.64 0.00 0.00 0.00 0.00 0.00 1.00 0.00 0.00 0.00 0.00 44800.00 39936.00 30720.00 
553829.13 4118284.00 594.53 0.00 0.00 0.00 0.00 0.00 1.00 0.00 0.00 0.00 0.00 48640.00 43776.00 34048.00 
553829.25 4118285.00 594.58 0.00 0.00 0.00 0.00 0.00 1.00 0.00 0.00 0.00 0.00 42752.00 38144.00 27904.00 
553829.25 4118290.25 594.78 0.00 0.00 0.00 0.00 0.00 1.00 0.00 0.00 0.00 0.00 46592.00 40960.00 30720.00 
553829.31 4118291.25 594.79 0.00 0.00 0.00 0.00 0.00 1.00 0.00 0.00 0.00 0.00 49408.00 45568.00 35840.00 
553829.38 4118275.75 607.90 0.00 0.00 0.00 0.00 0.00 1.00 0.00 0.00 0.00 0.00 34560.00 30720.00 25088.00 
553829.44 4118280.00 594.43 0.00 0.00 0.00 0.00 0.00 1.00 0.00 0.00 0.00 0.00 45056.00 39168.00 29696.00 
553829.75 4118278.75 601.79 0.00 0.00 0.00 0.00 0.00 1.00 0.00 0.00 0.00 0.00 40448.00 33024.00 24832.00 
553829.75 4118278.00 602.22 0.00 0.00 0.00 0.00 0.00 1.00 0.00 0.00 0.00 0.00 26112.00 23808.00 19456.00 
553829.75 4118277.00 606.63 0.00 0.00 0.00 0.00 0.00 1.00 0.00 0.00 0.00 0.00 37376.00 34048.00 29440.00 
553829.88 4118289.25 594.76 0.00 0.00 0.00 0.00 0.00 1.00 0.00 0.00 0.00 0.00 33024.00 29696.00 17920.00 
553830.00 4118279.25 594.43 0.00 0.00 0.00 0.00 0.00 1.00 0.00 0.00 0.00 0.00 47872.00 44032.00 34048.00 
553830.00 4118286.00 594.70 0.00 0.00 0.00 0.00 0.00 1.00 0.00 0.00 0.00 0.00 34560.00 30976.00 25344.00 
553830.00 4118284.25 594.61 0.00 0.00 0.00 0.00 0.00 1.00 0.00 0.00 0.00 0.00 46080.00 41216.00 30720.00 
553830.00 4118282.25 594.52 0.00 0.00 0.00 0.00 0.00 1.00 0.00 0.00 0.00 0.00 40448.00 33024.00 22784.00 
553830.06 4118281.00 594.46 0.00 0.00 0.00 0.00 0.00 1.00 0.00 0.00 0.00 0.00 41472.00 35840.00 25088.00 
553830.06 4118283.25 594.55 0.00 0.00 0.00 0.00 0.00 1.00 0.00 0.00 0.00 0.00 47104.00 43264.00 34560.00 
553830.06 4118291.25 594.84 0.00 0.00 0.00 0.00 0.00 1.00 0.00 0.00 0.00 0.00 41984.00 37120.00 24832.00 
553830.13 4118287.50 594.75 0.00 0.00 0.00 0.00 0.00 1.00 0.00 0.00 0.00 0.00 33792.00 27904.00 20480.00 
553830.13 4118290.00 594.79 0.00 0.00 0.00 0.00 0.00 1.00 0.00 0.00 0.00 0.00 19968.00 18688.00 12288.00 
553830.13 4118279.00 594.43 0.00 0.00 0.00 0.00 0.00 1.00 0.00 0.00 0.00 0.00 45568.00 41472.00 32256.00 
553830.19 4118292.00 594.88 0.00 0.00 0.00 0.00 0.00 1.00 0.00 0.00 0.00 0.00 20224.00 18944.00 15616.00 
553830.19 4118293.75 594.90 0.00 0.00 0.00 0.00 0.00 1.00 0.00 0.00 0.00 0.00 36608.00 31744.00 22272.00 
553830.19 4118277.00 605.26 0.00 0.00 0.00 0.00 0.00 1.00 0.00 0.00 0.00 0.00 38656.00 34304.00 28160.00 
553830.25 4118280.25 594.43 0.00 0.00 0.00 0.00 0.00 1.00 0.00 0.00 0.00 0.00 36864.00 31232.00 19968.00 
553830.31 4118289.00 594.78 0.00 0.00 0.00 0.00 0.00 1.00 0.00 0.00 0.00 0.00 20736.00 17920.00 12032.00 
553830.81 4118285.25 594.65 0.00 0.00 0.00 0.00 0.00 1.00 0.00 0.00 0.00 0.00 28160.00 24832.00 19968.00 
553830.94 4118288.50 594.76 0.00 0.00 0.00 0.00 0.00 1.00 0.00 0.00 0.00 0.00 24064.00 21760.00 16384.00 
553830.94 4118278.00 594.43 0.00 0.00 0.00 0.00 0.00 1.00 0.00 0.00 0.00 0.00 48896.00 44800.00 36864.00 
553831.00 4118278.25 594.43 0.00 0.00 0.00 0.00 0.00 1.00 0.00 0.00 0.00 0.00 49920.00 45568.00 36352.00 
553831.00 4118288.00 594.76 0.00 0.00 0.00 0.00 0.00 1.00 0.00 0.00 0.00 0.00 9984.00 8960.00 7424.00 
553831.00 4118278.00 594.43 0.00 0.00 0.00 0.00 0.00 1.00 0.00 0.00 0.00 0.00 42240.00 36864.00 28416.00 
553831.06 4118283.00 594.62 0.00 0.00 0.00 0.00 0.00 1.00 0.00 0.00 0.00 0.00 42496.00 37376.00 27648.00 
553831.13 4118279.00 594.44 0.00 0.00 0.00 0.00 0.00 1.00 0.00 0.00 0.00 0.00 36608.00 31744.00 21760.00 
553831.13 4118293.50 594.93 0.00 0.00 0.00 0.00 0.00 1.00 0.00 0.00 0.00 0.00 31232.00 26880.00 19968.00 
553831.13 4118291.25 594.89 0.00 0.00 0.00 0.00 0.00 1.00 0.00 0.00 0.00 0.00 22528.00 20224.00 15104.00 
553831.13 4118292.25 594.92 0.00 0.00 0.00 0.00 0.00 1.00 0.00 0.00 0.00 0.00 14592.00 12800.00 9984.00 
553831.13 4118289.75 594.78 0.00 0.00 0.00 0.00 0.00 1.00 0.00 0.00 0.00 0.00 9728.00 10752.00 8704.00 
553831.19 4118286.50 594.71 0.00 0.00 0.00 0.00 0.00 1.00 0.00 0.00 0.00 0.00 44544.00 39936.00 30720.00 
553831.25 4118282.50 594.51 0.00 0.00 0.00 0.00 0.00 1.00 0.00 0.00 0.00 0.00 46848.00 43264.00 35328.00 
553831.38 4118280.25 594.50 0.00 0.00 0.00 0.00 0.00 1.00 0.00 0.00 0.00 0.00 37632.00 33280.00 24320.00 
553831.38 4118290.25 594.85 0.00 0.00 0.00 0.00 0.00 1.00 0.00 0.00 0.00 0.00 19968.00 18688.00 13056.00 
553831.50 4118281.00 594.52 0.00 0.00 0.00 0.00 0.00 1.00 0.00 0.00 0.00 0.00 40704.00 35072.00 25856.00 
553831.50 4118285.00 594.55 0.00 0.00 0.00 0.00 0.00 1.00 0.00 0.00 0.00 0.00 17920.00 15872.00 13312.00 
553831.63 4118285.00 594.57 0.00 0.00 0.00 0.00 0.00 1.00 0.00 0.00 0.00 0.00 16896.00 14336.00 10752.00 
553831.75 4118287.75 594.53 0.00 0.00 0.00 0.00 0.00 1.00 0.00 0.00 0.00 0.00 13824.00 13056.00 11264.00 
553831.88 4118277.00 594.43 0.00 0.00 0.00 0.00 0.00 1.00 0.00 0.00 0.00 0.00 49152.00 42240.00 33024.00 
553831.94 4118275.75 609.79 0.00 0.00 0.00 0.00 0.00 1.00 0.00 0.00 0.00 0.00 37120.00 35840.00 33280.00 
553832.00 4118277.00 594.43 0.00 0.00 0.00 0.00 0.00 1.00 0.00 0.00 0.00 0.00 46336.00 40448.00 32000.00 
553832.00 4118293.25 594.97 0.00 0.00 0.00 0.00 0.00 1.00 0.00 0.00 0.00 0.00 22784.00 20480.00 17408.00 
553832.00 4118282.00 594.66 0.00 0.00 0.00 0.00 0.00 1.00 0.00 0.00 0.00 0.00 45568.00 40192.00 29696.00 
553832.00 4118280.00 594.54 0.00 0.00 0.00 0.00 0.00 1.00 0.00 0.00 0.00 0.00 35072.00 29184.00 19968.00 
553832.00 4118279.25 594.50 0.00 0.00 0.00 0.00 0.00 1.00 0.00 0.00 0.00 0.00 38912.00 34048.00 25856.00 
553832.00 4118281.00 594.58 0.00 0.00 0.00 0.00 0.00 1.00 0.00 0.00 0.00 0.00 37632.00 31232.00 23296.00 
553832.00 4118277.00 594.43 0.00 0.00 0.00 0.00 0.00 1.00 0.00 0.00 0.00 0.00 42752.00 36096.00 26880.00 
553832.06 4118292.50 594.92 0.00 0.00 0.00 0.00 0.00 1.00 0.00 0.00 0.00 0.00 14336.00 13568.00 12288.00 
553832.06 4118291.25 594.91 0.00 0.00 0.00 0.00 0.00 1.00 0.00 0.00 0.00 0.00 14080.00 14080.00 10752.00 
553832.19 4118278.25 594.44 0.00 0.00 0.00 0.00 0.00 1.00 0.00 0.00 0.00 0.00 38144.00 33280.00 25856.00 
553832.19 4118289.25 594.87 0.00 0.00 0.00 0.00 0.00 1.00 0.00 0.00 0.00 0.00 9472.00 10496.00 8192.00 
553832.19 4118290.25 594.88 0.00 0.00 0.00 0.00 0.00 1.00 0.00 0.00 0.00 0.00 6400.00 7680.00 6656.00 
553832.44 4118288.25 594.65 0.00 0.00 0.00 0.00 0.00 1.00 0.00 0.00 0.00 0.00 13056.00 11520.00 9984.00 
553832.44 4118287.25 594.71 0.00 0.00 0.00 0.00 0.00 1.00 0.00 0.00 0.00 0.00 29952.00 25344.00 19200.00 
553832.56 4118276.00 594.43 0.00 0.00 0.00 0.00 0.00 1.00 0.00 0.00 0.00 0.00 47872.00 43008.00 33024.00 
553832.56 4118284.50 594.59 0.00 0.00 0.00 0.00 0.00 1.00 0.00 0.00 0.00 0.00 16384.00 14336.00 10496.00 
553832.56 4118283.50 594.68 0.00 0.00 0.00 0.00 0.00 1.00 0.00 0.00 0.00 0.00 23808.00 20992.00 17408.00 
553832.63 4118285.00 594.73 0.00 0.00 0.00 0.00 0.00 1.00 0.00 0.00 0.00 0.00 29440.00 25344.00 19200.00 
553832.81 4118287.00 594.51 0.00 0.00 0.00 0.00 0.00 1.00 0.00 0.00 0.00 0.00 14592.00 13312.00 10240.00 
553833.00 4118275.75 594.43 0.00 0.00 0.00 0.00 0.00 1.00 0.00 0.00 0.00 0.00 47616.00 41728.00 32512.00 
553833.00 4118288.25 594.86 0.00 0.00 0.00 0.00 0.00 1.00 0.00 0.00 0.00 0.00 16128.00 14336.00 12800.00 
553833.00 4118277.25 594.46 0.00 0.00 0.00 0.00 0.00 1.00 0.00 0.00 0.00 0.00 43776.00 38400.00 28416.00 
553833.00 4118279.00 594.54 0.00 0.00 0.00 0.00 0.00 1.00 0.00 0.00 0.00 0.00 38400.00 33280.00 23552.00 
553833.06 4118278.00 594.50 0.00 0.00 0.00 0.00 0.00 1.00 0.00 0.00 0.00 0.00 36352.00 29696.00 21504.00 
553833.06 4118292.00 594.99 0.00 0.00 0.00 0.00 0.00 1.00 0.00 0.00 0.00 0.00 13056.00 11008.00 8448.00 
553833.13 4118280.00 594.60 0.00 0.00 0.00 0.00 0.00 1.00 0.00 0.00 0.00 0.00 37632.00 32768.00 25600.00 
553833.13 4118286.50 594.76 0.00 0.00 0.00 0.00 0.00 1.00 0.00 0.00 0.00 0.00 34304.00 30208.00 25088.00 
553833.19 4118293.25 595.01 0.00 0.00 0.00 0.00 0.00 1.00 0.00 0.00 0.00 0.00 11520.00 11520.00 10240.00 
553833.19 4118291.00 594.96 0.00 0.00 0.00 0.00 0.00 1.00 0.00 0.00 0.00 0.00 11520.00 12288.00 9216.00 
553833.19 4118276.00 594.43 0.00 0.00 0.00 0.00 0.00 1.00 0.00 0.00 0.00 0.00 47104.00 42496.00 33280.00 
553833.19 4118283.75 594.74 0.00 0.00 0.00 0.00 0.00 1.00 0.00 0.00 0.00 0.00 18688.00 14848.00 12800.00 
553833.19 4118289.00 594.90 0.00 0.00 0.00 0.00 0.00 1.00 0.00 0.00 0.00 0.00 17920.00 17408.00 12288.00 
553833.31 4118290.25 594.83 0.00 0.00 0.00 0.00 0.00 1.00 0.00 0.00 0.00 0.00 28928.00 27904.00 22784.00 
553833.38 4118281.00 594.55 0.00 0.00 0.00 0.00 0.00 1.00 0.00 0.00 0.00 0.00 30720.00 26112.00 19200.00 
553833.50 4118284.00 594.73 0.00 0.00 0.00 0.00 0.00 1.00 0.00 0.00 0.00 0.00 33024.00 28416.00 20992.00 
553833.50 4118282.00 594.70 0.00 0.00 0.00 0.00 0.00 1.00 0.00 0.00 0.00 0.00 39424.00 32768.00 23296.00 
553833.69 4118274.75 594.43 0.00 0.00 0.00 0.00 0.00 1.00 0.00 0.00 0.00 0.00 49408.00 45312.00 35328.00 
553833.75 4118287.25 594.81 0.00 0.00 0.00 0.00 0.00 1.00 0.00 0.00 0.00 0.00 21760.00 20224.00 17664.00 
553833.94 4118285.25 594.43 0.00 0.00 0.00 0.00 0.00 1.00 0.00 0.00 0.00 0.00 24576.00 21760.00 17152.00 
553834.00 4118275.00 594.43 0.00 0.00 0.00 0.00 0.00 1.00 0.00 0.00 0.00 0.00 50944.00 47616.00 39424.00 
553834.00 4118275.00 594.43 0.00 0.00 0.00 0.00 0.00 1.00 0.00 0.00 0.00 0.00 51968.00 48640.00 39936.00 
553834.00 4118281.00 594.72 0.00 0.00 0.00 0.00 0.00 1.00 0.00 0.00 0.00 0.00 22528.00 17152.00 12288.00 
553834.00 4118285.00 594.46 0.00 0.00 0.00 0.00 0.00 1.00 0.00 0.00 0.00 0.00 28928.00 25856.00 20224.00 
553834.06 4118284.00 594.87 0.00 0.00 0.00 0.00 0.00 1.00 0.00 0.00 0.00 0.00 16128.00 15616.00 12544.00 
553834.06 4118288.25 594.92 0.00 0.00 0.00 0.00 0.00 1.00 0.00 0.00 0.00 0.00 13568.00 13056.00 11264.00 
553834.06 4118279.00 594.60 0.00 0.00 0.00 0.00 0.00 1.00 0.00 0.00 0.00 0.00 47104.00 41984.00 31744.00 
553834.19 4118286.25 594.43 0.00 0.00 0.00 0.00 0.00 1.00 0.00 0.00 0.00 0.00 24832.00 22784.00 18176.00 
553834.19 4118280.25 594.65 0.00 0.00 0.00 0.00 0.00 1.00 0.00 0.00 0.00 0.00 41728.00 36096.00 28160.00 
553834.19 4118278.00 594.53 0.00 0.00 0.00 0.00 0.00 1.00 0.00 0.00 0.00 0.00 32512.00 28160.00 19456.00 
553834.19 4118277.00 594.52 0.00 0.00 0.00 0.00 0.00 1.00 0.00 0.00 0.00 0.00 48384.00 43776.00 35328.00 
553834.19 4118282.00 594.78 0.00 0.00 0.00 0.00 0.00 1.00 0.00 0.00 0.00 0.00 48384.00 42496.00 31488.00 
553834.25 4118291.00 595.00 0.00 0.00 0.00 0.00 0.00 1.00 0.00 0.00 0.00 0.00 8192.00 9728.00 10240.00 
553834.38 4118277.00 594.44 0.00 0.00 0.00 0.00 0.00 1.00 0.00 0.00 0.00 0.00 40192.00 35840.00 26880.00 
553834.44 4118290.00 594.96 0.00 0.00 0.00 0.00 0.00 1.00 0.00 0.00 0.00 0.00 5632.00 6912.00 6656.00 
553834.56 4118289.25 594.92 0.00 0.00 0.00 0.00 0.00 1.00 0.00 0.00 0.00 0.00 5632.00 6144.00 6144.00 
553834.88 4118284.50 594.57 0.00 0.00 0.00 0.00 0.00 1.00 0.00 0.00 0.00 0.00 26112.00 21504.00 16128.00 
553834.94 4118292.25 594.99 0.00 0.00 0.00 0.00 0.00 1.00 0.00 0.00 0.00 0.00 21248.00 20736.00 17664.00 
553835.00 4118293.50 594.96 0.00 0.00 0.00 0.00 0.00 1.00 0.00 0.00 0.00 0.00 28928.00 24832.00 19456.00 
553835.00 4118287.00 594.81 0.00 0.00 0.00 0.00 0.00 1.00 0.00 0.00 0.00 0.00 36096.00 31488.00 24832.00 
553835.00 4118277.00 594.54 0.00 0.00 0.00 0.00 0.00 1.00 0.00 0.00 0.00 0.00 44032.00 40192.00 32000.00 
553835.00 4118276.00 594.51 0.00 0.00 0.00 0.00 0.00 1.00 0.00 0.00 0.00 0.00 40192.00 35840.00 28160.00 
553835.06 4118280.00 594.71 0.00 0.00 0.00 0.00 0.00 1.00 0.00 0.00 0.00 0.00 21760.00 17920.00 14080.00 
553835.06 4118288.25 594.91 0.00 0.00 0.00 0.00 0.00 1.00 0.00 0.00 0.00 0.00 17408.00 16384.00 15104.00 
553835.13 4118284.50 594.50 0.00 0.00 0.00 0.00 0.00 1.00 0.00 0.00 0.00 0.00 16640.00 14336.00 11776.00 
553835.13 4118281.25 594.78 0.00 0.00 0.00 0.00 0.00 1.00 0.00 0.00 0.00 0.00 22272.00 20224.00 16640.00 
553835.19 4118291.00 595.03 0.00 0.00 0.00 0.00 0.00 1.00 0.00 0.00 0.00 0.00 8704.00 11008.00 11520.00 
553835.19 4118274.50 594.44 0.00 0.00 0.00 0.00 0.00 1.00 0.00 0.00 0.00 0.00 49920.00 47104.00 39680.00 
553835.25 4118278.25 594.58 0.00 0.00 0.00 0.00 0.00 1.00 0.00 0.00 0.00 0.00 40960.00 36608.00 29440.00 
553835.31 4118285.75 594.43 0.00 0.00 0.00 0.00 0.00 1.00 0.00 0.00 0.00 0.00 7680.00 8192.00 7936.00 
553835.31 4118283.00 594.84 0.00 0.00 0.00 0.00 0.00 1.00 0.00 0.00 0.00 0.00 16128.00 13312.00 10240.00 
553835.38 4118290.00 594.99 0.00 0.00 0.00 0.00 0.00 1.00 0.00 0.00 0.00 0.00 12032.00 11776.00 9472.00 
553835.38 4118275.50 594.43 0.00 0.00 0.00 0.00 0.00 1.00 0.00 0.00 0.00 0.00 18688.00 19200.00 18432.00 
553835.56 4118286.00 594.65 0.00 0.00 0.00 0.00 0.00 1.00 0.00 0.00 0.00 0.00 5632.00 6144.00 6400.00 
553835.63 4118293.50 595.12 0.00 0.00 0.00 0.00 0.00 1.00 0.00 0.00 0.00 0.00 16896.00 15616.00 13056.00 
553835.75 4118289.25 594.93 0.00 0.00 0.00 0.00 0.00 1.00 0.00 0.00 0.00 0.00 6912.00 6912.00 6400.00 
553835.75 4118282.25 594.44 0.00 0.00 0.00 0.00 0.00 1.00 0.00 0.00 0.00 0.00 23808.00 20736.00 15872.00 
553835.88 4118279.25 594.57 0.00 0.00 0.00 0.00 0.00 1.00 0.00 0.00 0.00 0.00 36608.00 31232.00 26368.00 
553835.94 4118287.75 594.82 0.00 0.00 0.00 0.00 0.00 1.00 0.00 0.00 0.00 0.00 11008.00 10752.00 9984.00 
553836.00 4118292.25 595.08 0.00 0.00 0.00 0.00 0.00 1.00 0.00 0.00 0.00 0.00 17408.00 16640.00 14336.00 
553836.00 4118279.25 594.65 0.00 0.00 0.00 0.00 0.00 1.00 0.00 0.00 0.00 0.00 36864.00 31232.00 24832.00 
553836.00 4118274.25 594.51 0.00 0.00 0.00 0.00 0.00 1.00 0.00 0.00 0.00 0.00 48896.00 45056.00 38144.00 
553836.06 4118287.75 594.76 0.00 0.00 0.00 0.00 0.00 1.00 0.00 0.00 0.00 0.00 7680.00 9216.00 9472.00 
553836.13 4118292.00 595.12 0.00 0.00 0.00 0.00 0.00 1.00 0.00 0.00 0.00 0.00 24064.00 22528.00 17408.00 
553836.13 4118275.75 594.43 0.00 0.00 0.00 0.00 0.00 1.00 0.00 0.00 0.00 0.00 35072.00 31744.00 26112.00 
553836.13 4118286.00 594.76 0.00 0.00 0.00 0.00 0.00 1.00 0.00 0.00 0.00 0.00 8448.00 8960.00 9216.00 
553836.19 4118278.00 594.65 0.00 0.00 0.00 0.00 0.00 1.00 0.00 0.00 0.00 0.00 44800.00 39680.00 31744.00 
553836.19 4118293.25 595.10 0.00 0.00 0.00 0.00 0.00 1.00 0.00 0.00 0.00 0.00 11008.00 12032.00 11776.00 
553836.31 4118290.75 595.00 0.00 0.00 0.00 0.00 0.00 1.00 0.00 0.00 0.00 0.00 7168.00 8704.00 8704.00 
553836.31 4118281.25 594.74 0.00 0.00 0.00 0.00 0.00 1.00 0.00 0.00 0.00 0.00 41472.00 38144.00 32768.00 
553836.31 4118280.50 594.61 0.00 0.00 0.00 0.00 0.00 1.00 0.00 0.00 0.00 0.00 33536.00 29184.00 23296.00 
553836.38 4118276.00 594.43 0.00 0.00 0.00 0.00 0.00 1.00 0.00 0.00 0.00 0.00 43776.00 40704.00 34304.00 
553836.56 4118291.25 594.91 0.00 0.00 0.00 0.00 0.00 1.00 0.00 0.00 0.00 0.00 4608.00 6144.00 6656.00 
553836.69 4118286.25 594.91 0.00 0.00 0.00 0.00 0.00 1.00 0.00 0.00 0.00 0.00 9472.00 9728.00 9216.00 
553836.75 4118289.00 594.94 0.00 0.00 0.00 0.00 0.00 1.00 0.00 0.00 0.00 0.00 6144.00 7424.00 7168.00 
553836.88 4118282.75 594.75 0.00 0.00 0.00 0.00 0.00 1.00 0.00 0.00 0.00 0.00 27136.00 25088.00 21760.00 
553836.88 4118284.00 594.69 0.00 0.00 0.00 0.00 0.00 1.00 0.00 0.00 0.00 0.00 30208.00 25600.00 20224.00 
553836.88 4118288.25 594.89 0.00 0.00 0.00 0.00 0.00 1.00 0.00 0.00 0.00 0.00 5888.00 7424.00 7936.00 
553836.94 4118283.00 594.73 0.00 0.00 0.00 0.00 0.00 1.00 0.00 0.00 0.00 0.00 16128.00 14080.00 11264.00 
553837.00 4118277.75 594.44 0.00 0.00 0.00 0.00 0.00 1.00 0.00 0.00 0.00 0.00 33536.00 29696.00 26112.00 
553837.00 4118277.75 594.44 0.00 0.00 0.00 0.00 0.00 1.00 0.00 0.00 0.00 0.00 29952.00 26880.00 23808.00 
553837.00 4118293.00 595.22 0.00 0.00 0.00 0.00 0.00 1.00 0.00 0.00 0.00 0.00 10496.00 12032.00 12288.00 
553837.06 4118282.50 594.62 0.00 0.00 0.00 0.00 0.00 1.00 0.00 0.00 0.00 0.00 17920.00 15616.00 13312.00 
553837.06 4118279.00 594.75 0.00 0.00 0.00 0.00 0.00 1.00 0.00 0.00 0.00 0.00 46336.00 41728.00 31744.00 
553837.06 4118278.00 594.71 0.00 0.00 0.00 0.00 0.00 1.00 0.00 0.00 0.00 0.00 38656.00 33792.00 26624.00 
553837.06 4118291.50 594.99 0.00 0.00 0.00 0.00 0.00 1.00 0.00 0.00 0.00 0.00 7936.00 10752.00 11520.00 
553837.06 4118275.00 594.54 0.00 0.00 0.00 0.00 0.00 1.00 0.00 0.00 0.00 0.00 45056.00 41472.00 34304.00 
553837.06 4118285.25 594.89 0.00 0.00 0.00 0.00 0.00 1.00 0.00 0.00 0.00 0.00 17408.00 16384.00 15616.00 
553837.19 4118280.50 594.71 0.00 0.00 0.00 0.00 0.00 1.00 0.00 0.00 0.00 0.00 40960.00 32000.00 23296.00 
553837.19 4118289.75 594.91 0.00 0.00 0.00 0.00 0.00 1.00 0.00 0.00 0.00 0.00 5632.00 7680.00 8192.00 
553837.19 4118292.75 595.08 0.00 0.00 0.00 0.00 0.00 1.00 0.00 0.00 0.00 0.00 15104.00 15360.00 14336.00 
553837.44 4118276.00 594.43 0.00 0.00 0.00 0.00 0.00 1.00 0.00 0.00 0.00 0.00 29440.00 27136.00 24576.00 
553837.50 4118287.00 594.63 0.00 0.00 0.00 0.00 0.00 1.00 0.00 0.00 0.00 0.00 11264.00 11520.00 11520.00 
553837.50 4118275.50 594.43 0.00 0.00 0.00 0.00 0.00 1.00 0.00 0.00 0.00 0.00 26112.00 24320.00 22272.00 
553837.56 4118287.25 594.65 0.00 0.00 0.00 0.00 0.00 1.00 0.00 0.00 0.00 0.00 9984.00 10752.00 10496.00 
553837.75 4118288.25 594.96 0.00 0.00 0.00 0.00 0.00 1.00 0.00 0.00 0.00 0.00 7168.00 7936.00 7936.00 
553837.75 4118281.75 594.81 0.00 0.00 0.00 0.00 0.00 1.00 0.00 0.00 0.00 0.00 41216.00 34560.00 26112.00 
553837.88 4118284.00 594.84 0.00 0.00 0.00 0.00 0.00 1.00 0.00 0.00 0.00 0.00 36352.00 32512.00 28672.00 
553837.88 4118284.00 594.75 0.00 0.00 0.00 0.00 0.00 1.00 0.00 0.00 0.00 0.00 23296.00 19968.00 16640.00 
553837.88 4118291.00 595.02 0.00 0.00 0.00 0.00 0.00 1.00 0.00 0.00 0.00 0.00 5120.00 7168.00 7936.00 
553838.00 4118291.00 595.10 0.00 0.00 0.00 0.00 0.00 1.00 0.00 0.00 0.00 0.00 5376.00 6912.00 7936.00 
553838.00 4118279.00 594.81 0.00 0.00 0.00 0.00 0.00 1.00 0.00 0.00 0.00 0.00 47616.00 43264.00 35840.00 
553838.06 4118278.00 594.78 0.00 0.00 0.00 0.00 0.00 1.00 0.00 0.00 0.00 0.00 52992.00 48896.00 41984.00 
553838.06 4118274.50 594.59 0.00 0.00 0.00 0.00 0.00 1.00 0.00 0.00 0.00 0.00 39424.00 35072.00 27648.00 
553838.13 4118288.50 595.01 0.00 0.00 0.00 0.00 0.00 1.00 0.00 0.00 0.00 0.00 11264.00 10496.00 9472.00 
553838.13 4118292.00 595.20 0.00 0.00 0.00 0.00 0.00 1.00 0.00 0.00 0.00 0.00 6912.00 9472.00 10752.00 
553838.13 4118293.00 595.26 0.00 0.00 0.00 0.00 0.00 1.00 0.00 0.00 0.00 0.00 9216.00 12288.00 13568.00 
553838.13 4118277.25 594.71 0.00 0.00 0.00 0.00 0.00 1.00 0.00 0.00 0.00 0.00 42752.00 38144.00 30208.00 
553838.19 4118276.50 594.65 0.00 0.00 0.00 0.00 0.00 1.00 0.00 0.00 0.00 0.00 52736.00 49920.00 43520.00 
553838.25 4118282.75 594.69 0.00 0.00 0.00 0.00 0.00 1.00 0.00 0.00 0.00 0.00 18432.00 16640.00 13568.00 
553838.25 4118286.00 594.99 0.00 0.00 0.00 0.00 0.00 1.00 0.00 0.00 0.00 0.00 23552.00 19968.00 14592.00 
553838.25 4118290.50 595.02 0.00 0.00 0.00 0.00 0.00 1.00 0.00 0.00 0.00 0.00 7680.00 9984.00 11264.00 
553838.25 4118281.00 594.83 0.00 0.00 0.00 0.00 0.00 1.00 0.00 0.00 0.00 0.00 37376.00 33280.00 26368.00 
553838.31 4118289.25 595.03 0.00 0.00 0.00 0.00 0.00 1.00 0.00 0.00 0.00 0.00 6656.00 7936.00 8704.00 
553838.31 4118280.25 594.77 0.00 0.00 0.00 0.00 0.00 1.00 0.00 0.00 0.00 0.00 45824.00 38656.00 28160.00 
553838.44 4118285.25 594.92 0.00 0.00 0.00 0.00 0.00 1.00 0.00 0.00 0.00 0.00 25344.00 23296.00 18688.00 
553838.50 4118275.50 594.58 0.00 0.00 0.00 0.00 0.00 1.00 0.00 0.00 0.00 0.00 35328.00 31232.00 24576.00 
553838.69 4118284.75 594.87 0.00 0.00 0.00 0.00 0.00 1.00 0.00 0.00 0.00 0.00 25344.00 19968.00 15104.00 
553838.69 4118287.50 594.96 0.00 0.00 0.00 0.00 0.00 1.00 0.00 0.00 0.00 0.00 6912.00 7168.00 7168.00 
553838.75 4118283.00 594.85 0.00 0.00 0.00 0.00 0.00 1.00 0.00 0.00 0.00 0.00 20992.00 19456.00 16128.00 
553839.00 4118286.25 595.01 0.00 0.00 0.00 0.00 0.00 1.00 0.00 0.00 0.00 0.00 8704.00 8704.00 7936.00 
553839.00 4118293.75 595.29 0.00 0.00 0.00 0.00 0.00 1.00 0.00 0.00 0.00 0.00 5888.00 8704.00 9728.00 
553839.13 4118281.25 594.90 0.00 0.00 0.00 0.00 0.00 1.00 0.00 0.00 0.00 0.00 41472.00 38912.00 34304.00 
553839.13 4118276.00 594.70 0.00 0.00 0.00 0.00 0.00 1.00 0.00 0.00 0.00 0.00 37376.00 33024.00 26112.00 
553839.13 4118274.50 594.62 0.00 0.00 0.00 0.00 0.00 1.00 0.00 0.00 0.00 0.00 40704.00 36096.00 29440.00 
553839.13 4118283.25 594.93 0.00 0.00 0.00 0.00 0.00 1.00 0.00 0.00 0.00 0.00 8704.00 7936.00 6912.00 
553839.13 4118279.00 594.84 0.00 0.00 0.00 0.00 0.00 1.00 0.00 0.00 0.00 0.00 41984.00 38144.00 29696.00 
553839.13 4118282.75 594.65 0.00 0.00 0.00 0.00 0.00 1.00 0.00 0.00 0.00 0.00 36096.00 32000.00 26112.00 
553839.19 4118280.50 594.86 0.00 0.00 0.00 0.00 0.00 1.00 0.00 0.00 0.00 0.00 34560.00 30208.00 23296.00 
553839.25 4118287.25 595.02 0.00 0.00 0.00 0.00 0.00 1.00 0.00 0.00 0.00 0.00 9472.00 11008.00 11264.00 
553839.25 4118277.25 594.70 0.00 0.00 0.00 0.00 0.00 1.00 0.00 0.00 0.00 0.00 46592.00 42752.00 35584.00 
553839.25 4118275.50 594.65 0.00 0.00 0.00 0.00 0.00 1.00 0.00 0.00 0.00 0.00 46080.00 41728.00 34560.00 
553839.25 4118288.00 595.06 0.00 0.00 0.00 0.00 0.00 1.00 0.00 0.00 0.00 0.00 12032.00 12800.00 12032.00 
553839.50 4118289.00 595.11 0.00 0.00 0.00 0.00 0.00 1.00 0.00 0.00 0.00 0.00 13056.00 14848.00 15616.00 
553839.50 4118278.25 594.79 0.00 0.00 0.00 0.00 0.00 1.00 0.00 0.00 0.00 0.00 53248.00 49152.00 41728.00 
553839.69 4118290.25 595.14 0.00 0.00 0.00 0.00 0.00 1.00 0.00 0.00 0.00 0.00 10752.00 11520.00 12032.00 
553839.88 4118292.00 595.07 0.00 0.00 0.00 0.00 0.00 1.00 0.00 0.00 0.00 0.00 5120.00 6912.00 7936.00 
553839.88 4118292.00 594.97 0.00 0.00 0.00 0.00 0.00 1.00 0.00 0.00 0.00 0.00 4864.00 6656.00 7936.00 
553839.88 4118285.75 594.95 0.00 0.00 0.00 0.00 0.00 1.00 0.00 0.00 0.00 0.00 11008.00 11008.00 10240.00 
553840.00 4118284.50 594.88 0.00 0.00 0.00 0.00 0.00 1.00 0.00 0.00 0.00 0.00 8704.00 8448.00 7680.00 
553840.00 4118274.50 594.69 0.00 0.00 0.00 0.00 0.00 1.00 0.00 0.00 0.00 0.00 52480.00 48384.00 40960.00 
553840.00 4118287.00 595.08 0.00 0.00 0.00 0.00 0.00 1.00 0.00 0.00 0.00 0.00 25600.00 24064.00 18688.00 
553840.00 4118289.00 595.16 0.00 0.00 0.00 0.00 0.00 1.00 0.00 0.00 0.00 0.00 23808.00 23552.00 20736.00 
553840.00 4118283.50 594.94 0.00 0.00 0.00 0.00 0.00 1.00 0.00 0.00 0.00 0.00 26112.00 25088.00 21504.00 
553840.00 4118275.50 594.72 0.00 0.00 0.00 0.00 0.00 1.00 0.00 0.00 0.00 0.00 46592.00 42496.00 35072.00 
553840.00 4118286.25 595.04 0.00 0.00 0.00 0.00 0.00 1.00 0.00 0.00 0.00 0.00 26112.00 24832.00 20736.00 
553840.06 4118285.75 594.98 0.00 0.00 0.00 0.00 0.00 1.00 0.00 0.00 0.00 0.00 14592.00 13568.00 12032.00 
553840.06 4118284.75 594.88 0.00 0.00 0.00 0.00 0.00 1.00 0.00 0.00 0.00 0.00 11008.00 10240.00 9472.00 
553840.06 4118279.50 594.85 0.00 0.00 0.00 0.00 0.00 1.00 0.00 0.00 0.00 0.00 52480.00 49408.00 43264.00 
553840.06 4118288.25 595.12 0.00 0.00 0.00 0.00 0.00 1.00 0.00 0.00 0.00 0.00 22016.00 21248.00 17152.00 
553840.13 4118293.25 595.26 0.00 0.00 0.00 0.00 0.00 1.00 0.00 0.00 0.00 0.00 8704.00 11264.00 12288.00 
553840.13 4118282.25 594.94 0.00 0.00 0.00 0.00 0.00 1.00 0.00 0.00 0.00 0.00 43520.00 39424.00 32512.00 
553840.25 4118278.00 594.81 0.00 0.00 0.00 0.00 0.00 1.00 0.00 0.00 0.00 0.00 47872.00 43520.00 35840.00 
553840.25 4118276.50 594.75 0.00 0.00 0.00 0.00 0.00 1.00 0.00 0.00 0.00 0.00 38144.00 34304.00 28672.00 
553840.25 4118281.00 594.89 0.00 0.00 0.00 0.00 0.00 1.00 0.00 0.00 0.00 0.00 44544.00 40704.00 32768.00 
553840.31 4118277.25 594.78 0.00 0.00 0.00 0.00 0.00 1.00 0.00 0.00 0.00 0.00 54784.00 51456.00 44288.00 
553840.44 4118293.00 595.11 0.00 0.00 0.00 0.00 0.00 1.00 0.00 0.00 0.00 0.00 16896.00 17408.00 16640.00 
553840.50 4118280.50 594.88 0.00 0.00 0.00 0.00 0.00 1.00 0.00 0.00 0.00 0.00 52480.00 48384.00 40448.00 
553840.56 4118291.25 595.16 0.00 0.00 0.00 0.00 0.00 1.00 0.00 0.00 0.00 0.00 5376.00 7168.00 7680.00 
553840.69 4118290.75 595.20 0.00 0.00 0.00 0.00 0.00 1.00 0.00 0.00 0.00 0.00 6144.00 8960.00 9984.00 
553841.00 4118277.50 594.81 0.00 0.00 0.00 0.00 0.00 1.00 0.00 0.00 0.00 0.00 34560.00 29952.00 23040.00 
553841.00 4118285.00 595.05 0.00 0.00 0.00 0.00 0.00 1.00 0.00 0.00 0.00 0.00 40192.00 38912.00 34560.00 
553841.00 4118291.00 595.23 0.00 0.00 0.00 0.00 0.00 1.00 0.00 0.00 0.00 0.00 8704.00 9728.00 9728.00 
553841.00 4118276.25 594.79 0.00 0.00 0.00 0.00 0.00 1.00 0.00 0.00 0.00 0.00 46592.00 41984.00 34304.00 
553841.06 4118284.00 594.99 0.00 0.00 0.00 0.00 0.00 1.00 0.00 0.00 0.00 0.00 32512.00 26880.00 18944.00 
553841.06 4118286.50 595.10 0.00 0.00 0.00 0.00 0.00 1.00 0.00 0.00 0.00 0.00 12032.00 11776.00 9984.00 
553841.13 4118288.25 595.13 0.00 0.00 0.00 0.00 0.00 1.00 0.00 0.00 0.00 0.00 28672.00 26880.00 23296.00 
553841.13 4118274.50 594.72 0.00 0.00 0.00 0.00 0.00 1.00 0.00 0.00 0.00 0.00 47360.00 43008.00 35072.00 
553841.25 4118283.25 594.92 0.00 0.00 0.00 0.00 0.00 1.00 0.00 0.00 0.00 0.00 42752.00 37888.00 29440.00 
553841.25 4118287.50 595.09 0.00 0.00 0.00 0.00 0.00 1.00 0.00 0.00 0.00 0.00 14080.00 14336.00 13824.00 
553841.44 4118275.25 594.77 0.00 0.00 0.00 0.00 0.00 1.00 0.00 0.00 0.00 0.00 47360.00 44288.00 37120.00 
553841.50 4118293.00 595.23 0.00 0.00 0.00 0.00 0.00 1.00 0.00 0.00 0.00 0.00 8960.00 10240.00 10752.00 
553841.50 4118293.00 595.21 0.00 0.00 0.00 0.00 0.00 1.00 0.00 0.00 0.00 0.00 11264.00 12288.00 12288.00 
553841.56 4118279.50 594.87 0.00 0.00 0.00 0.00 0.00 1.00 0.00 0.00 0.00 0.00 42240.00 37632.00 30464.00 
553841.56 4118280.00 594.89 0.00 0.00 0.00 0.00 0.00 1.00 0.00 0.00 0.00 0.00 35072.00 29440.00 22528.00 
553841.81 4118278.25 594.83 0.00 0.00 0.00 0.00 0.00 1.00 0.00 0.00 0.00 0.00 47616.00 43520.00 36864.00 
553841.81 4118290.75 595.21 0.00 0.00 0.00 0.00 0.00 1.00 0.00 0.00 0.00 0.00 5376.00 7168.00 7680.00 
553841.88 4118282.25 594.96 0.00 0.00 0.00 0.00 0.00 1.00 0.00 0.00 0.00 0.00 44544.00 40704.00 32256.00 
553841.94 4118289.25 595.20 0.00 0.00 0.00 0.00 0.00 1.00 0.00 0.00 0.00 0.00 35072.00 31744.00 25856.00 
553842.00 4118281.75 594.87 0.00 0.00 0.00 0.00 0.00 1.00 0.00 0.00 0.00 0.00 37888.00 33792.00 26368.00 
553842.00 4118293.50 595.33 0.00 0.00 0.00 0.00 0.00 1.00 0.00 0.00 0.00 0.00 25344.00 24576.00 21504.00 
553842.00 4118287.00 595.15 0.00 0.00 0.00 0.00 0.00 1.00 0.00 0.00 0.00 0.00 32768.00 28672.00 22016.00 
553842.00 4118283.50 595.03 0.00 0.00 0.00 0.00 0.00 1.00 0.00 0.00 0.00 0.00 54784.00 52480.00 46592.00 
553842.00 4118276.50 594.82 0.00 0.00 0.00 0.00 0.00 1.00 0.00 0.00 0.00 0.00 46336.00 41728.00 33792.00 
553842.06 4118277.25 594.84 0.00 0.00 0.00 0.00 0.00 1.00 0.00 0.00 0.00 0.00 52736.00 48640.00 40960.00 
553842.06 4118285.75 595.06 0.00 0.00 0.00 0.00 0.00 1.00 0.00 0.00 0.00 0.00 7680.00 7936.00 7424.00 
553842.06 4118281.75 594.89 0.00 0.00 0.00 0.00 0.00 1.00 0.00 0.00 0.00 0.00 45824.00 40704.00 33280.00 
553842.13 4118274.50 594.77 0.00 0.00 0.00 0.00 0.00 1.00 0.00 0.00 0.00 0.00 46848.00 44288.00 38656.00 
553842.13 4118286.25 595.11 0.00 0.00 0.00 0.00 0.00 1.00 0.00 0.00 0.00 0.00 30208.00 29440.00 25344.00 
553842.19 4118282.00 594.97 0.00 0.00 0.00 0.00 0.00 1.00 0.00 0.00 0.00 0.00 47872.00 43520.00 35072.00 
553842.38 4118279.00 594.82 0.00 0.00 0.00 0.00 0.00 1.00 0.00 0.00 0.00 0.00 51456.00 48640.00 43008.00 
553842.38 4118279.25 594.84 0.00 0.00 0.00 0.00 0.00 1.00 0.00 0.00 0.00 0.00 50944.00 46592.00 39680.00 
553842.38 4118284.25 595.05 0.00 0.00 0.00 0.00 0.00 1.00 0.00 0.00 0.00 0.00 37888.00 33024.00 25600.00 
553842.44 4118275.75 594.82 0.00 0.00 0.00 0.00 0.00 1.00 0.00 0.00 0.00 0.00 41472.00 36608.00 28160.00 
553842.56 4118289.75 595.19 0.00 0.00 0.00 0.00 0.00 1.00 0.00 0.00 0.00 0.00 27648.00 27904.00 26368.00 
553842.75 4118280.25 594.90 0.00 0.00 0.00 0.00 0.00 1.00 0.00 0.00 0.00 0.00 44544.00 39936.00 31232.00 
553842.81 4118290.75 595.19 0.00 0.00 0.00 0.00 0.00 1.00 0.00 0.00 0.00 0.00 11520.00 12800.00 12544.00 
553842.88 4118288.25 595.17 0.00 0.00 0.00 0.00 0.00 1.00 0.00 0.00 0.00 0.00 17920.00 16640.00 14336.00 
553842.94 4118292.00 595.20 0.00 0.00 0.00 0.00 0.00 1.00 0.00 0.00 0.00 0.00 13312.00 13312.00 12032.00 
553842.94 4118292.00 595.27 0.00 0.00 0.00 0.00 0.00 1.00 0.00 0.00 0.00 0.00 25856.00 25088.00 22016.00 
553843.06 4118280.25 594.91 0.00 0.00 0.00 0.00 0.00 1.00 0.00 0.00 0.00 0.00 48128.00 43520.00 35584.00 
553843.06 4118288.50 595.18 0.00 0.00 0.00 0.00 0.00 1.00 0.00 0.00 0.00 0.00 6912.00 8192.00 8704.00 
553843.13 4118275.00 594.86 0.00 0.00 0.00 0.00 0.00 1.00 0.00 0.00 0.00 0.00 51712.00 47872.00 41472.00 
553843.19 4118283.50 595.06 0.00 0.00 0.00 0.00 0.00 1.00 0.00 0.00 0.00 0.00 53248.00 49152.00 41472.00 
553843.19 4118293.75 595.26 0.00 0.00 0.00 0.00 0.00 1.00 0.00 0.00 0.00 0.00 33280.00 30464.00 26624.00 
553843.25 4118286.00 595.12 0.00 0.00 0.00 0.00 0.00 1.00 0.00 0.00 0.00 0.00 30208.00 27392.00 22016.00 
553843.25 4118275.25 594.84 0.00 0.00 0.00 0.00 0.00 1.00 0.00 0.00 0.00 0.00 46336.00 42496.00 35328.00 
553843.25 4118276.00 594.86 0.00 0.00 0.00 0.00 0.00 1.00 0.00 0.00 0.00 0.00 47104.00 42752.00 34816.00 
553843.38 4118285.25 595.10 0.00 0.00 0.00 0.00 0.00 1.00 0.00 0.00 0.00 0.00 35328.00 32768.00 25600.00 
553843.38 4118281.25 594.92 0.00 0.00 0.00 0.00 0.00 1.00 0.00 0.00 0.00 0.00 32768.00 26624.00 18688.00 
553843.44 4118290.25 595.23 0.00 0.00 0.00 0.00 0.00 1.00 0.00 0.00 0.00 0.00 12544.00 13568.00 13824.00 
553843.44 4118284.25 595.07 0.00 0.00 0.00 0.00 0.00 1.00 0.00 0.00 0.00 0.00 45568.00 41216.00 32768.00 
553843.50 4118289.75 595.15 0.00 0.00 0.00 0.00 0.00 1.00 0.00 0.00 0.00 0.00 15616.00 16384.00 16384.00 
553843.50 4118282.25 595.01 0.00 0.00 0.00 0.00 0.00 1.00 0.00 0.00 0.00 0.00 45824.00 41216.00 32768.00 
553843.56 4118277.75 594.86 0.00 0.00 0.00 0.00 0.00 1.00 0.00 0.00 0.00 0.00 32768.00 27648.00 21248.00 
553843.69 4118278.50 594.85 0.00 0.00 0.00 0.00 0.00 1.00 0.00 0.00 0.00 0.00 35840.00 29952.00 20224.00 
553843.75 4118291.75 595.21 0.00 0.00 0.00 0.00 0.00 1.00 0.00 0.00 0.00 0.00 23808.00 23040.00 18688.00 
553843.94 4118292.00 595.28 0.00 0.00 0.00 0.00 0.00 1.00 0.00 0.00 0.00 0.00 24320.00 23040.00 18432.00 
553843.94 4118279.25 594.86 0.00 0.00 0.00 0.00 0.00 1.00 0.00 0.00 0.00 0.00 39936.00 34304.00 26368.00 
553844.00 4118288.00 595.14 0.00 0.00 0.00 0.00 0.00 1.00 0.00 0.00 0.00 0.00 17408.00 17152.00 15616.00 
553844.00 4118276.00 594.87 0.00 0.00 0.00 0.00 0.00 1.00 0.00 0.00 0.00 0.00 48640.00 44288.00 36352.00 
553844.00 4118279.25 594.88 0.00 0.00 0.00 0.00 0.00 1.00 0.00 0.00 0.00 0.00 41472.00 35328.00 27136.00 
553844.06 4118292.00 595.33 0.00 0.00 0.00 0.00 0.00 1.00 0.00 0.00 0.00 0.00 15360.00 15104.00 14336.00 
553844.06 4118281.00 594.98 0.00 0.00 0.00 0.00 0.00 1.00 0.00 0.00 0.00 0.00 38144.00 32512.00 25088.00 
553844.13 4118289.50 595.24 0.00 0.00 0.00 0.00 0.00 1.00 0.00 0.00 0.00 0.00 25344.00 23296.00 19200.00 
553844.13 4118283.00 595.09 0.00 0.00 0.00 0.00 0.00 1.00 0.00 0.00 0.00 0.00 36608.00 31488.00 24320.00 
553844.13 4118277.00 594.86 0.00 0.00 0.00 0.00 0.00 1.00 0.00 0.00 0.00 0.00 33536.00 28928.00 22272.00 
553844.19 4118284.00 595.10 0.00 0.00 0.00 0.00 0.00 1.00 0.00 0.00 0.00 0.00 36608.00 32000.00 24576.00 
553844.19 4118287.75 595.15 0.00 0.00 0.00 0.00 0.00 1.00 0.00 0.00 0.00 0.00 15872.00 15104.00 14080.00 
553844.19 4118291.25 595.23 0.00 0.00 0.00 0.00 0.00 1.00 0.00 0.00 0.00 0.00 15616.00 16640.00 16640.00 
553844.25 4118293.25 595.39 0.00 0.00 0.00 0.00 0.00 1.00 0.00 0.00 0.00 0.00 11264.00 11264.00 10240.00 
553844.25 4118285.00 595.10 0.00 0.00 0.00 0.00 0.00 1.00 0.00 0.00 0.00 0.00 41216.00 36352.00 26880.00 
553844.31 4118278.00 594.87 0.00 0.00 0.00 0.00 0.00 1.00 0.00 0.00 0.00 0.00 39936.00 35584.00 29184.00 
553844.31 4118282.00 595.04 0.00 0.00 0.00 0.00 0.00 1.00 0.00 0.00 0.00 0.00 31232.00 24064.00 15360.00 
553844.38 4118290.00 595.25 0.00 0.00 0.00 0.00 0.00 1.00 0.00 0.00 0.00 0.00 14080.00 13312.00 11776.00 
553844.38 4118278.00 594.85 0.00 0.00 0.00 0.00 0.00 1.00 0.00 0.00 0.00 0.00 39936.00 35840.00 29440.00 
553844.38 4118286.50 595.11 0.00 0.00 0.00 0.00 0.00 1.00 0.00 0.00 0.00 0.00 28928.00 27136.00 21504.00 
553844.38 4118280.25 594.93 0.00 0.00 0.00 0.00 0.00 1.00 0.00 0.00 0.00 0.00 47616.00 41216.00 33280.00 
553844.56 4118289.00 595.22 0.00 0.00 0.00 0.00 0.00 1.00 0.00 0.00 0.00 0.00 32000.00 28416.00 22272.00 
